# .PCD v0.7 - Point Cloud Data file format
VERSION 0.7
FIELDS x y z
SIZE 4 4 4
TYPE F F F
COUNT 1 1 1
WIDTH 1420
HEIGHT 1
VIEWPOINT 0 0 0 1 0 0 0
POINTS 1420
DATA ascii
0.32269126 0.064160079 0.84995449
0.32259646 0.064222366 0.8498503
0.32251865 0.06426762 0.84978139
0.32241082 0.064272657 0.84984916
0.32236198 0.064181462 0.85014451
0.32194749 0.064419881 0.84978485
0.32191527 0.064391822 0.8498888
0.32140434 0.064440906 0.85013843
0.32116091 0.06450206 0.85015053
0.4430505 0.031482711 0.85083497
0.44247755 0.031984106 0.84985131
0.4384096 0.033023424 0.8500036
0.4110699 0.04044763 0.84978372
0.39642948 0.044374451 0.84980428
0.39326751 0.045157157 0.84999382
0.39221942 0.045376167 0.85017109
0.39146188 0.045530498 0.8503105
0.38804805 0.046447918 0.85031027
0.38527325 0.047171682 0.8503722
0.38417846 0.047652788 0.84984297
0.37801936 0.04923249 0.85005623
0.37647152 0.049646705 0.85006112
0.3753514 0.049904697 0.85018283
0.37450799 0.050149404 0.85013163
0.37112796 0.051137917 0.84990442
0.36986426 0.051497161 0.84984875
0.36511871 0.052711822 0.85002011
0.36188567 0.053658463 0.84979963
0.36183074 0.053653695 0.84985495
0.36166742 0.053630717 0.85004425
0.35221869 0.056187689 0.84999335
0.35026953 0.056792393 0.84976417
0.34938294 0.056966364 0.84994614
0.34530497 0.058087945 0.84987319
0.34423319 0.058413886 0.84976572
0.34282058 0.058773726 0.84982169
0.34189567 0.059006073 0.84986746
0.34104764 0.05919838 0.84996819
0.32913473 0.062380001 0.85002351
0.3282344 0.062657073 0.84992397
0.32757872 0.062866062 0.84983116
0.32667446 0.063138962 0.84974641
0.32586205 0.063340232 0.84979463
0.32551235 0.063397735 0.84989792
0.3220405 0.064327762 0.84990615
0.321946 0.06438832 0.84980661
0.44079232 0.032524355 0.8495279
0.44015321 0.03266634 0.84961224
0.43884537 0.033038512 0.84955359
0.42891526 0.035661705 0.84968203
0.41302747 0.039882749 0.84981954
0.40512574 0.041952424 0.84997177
0.39812365 0.043826915 0.84999222
0.39794561 0.04386054 0.85003251
0.39625388 0.044299297 0.85007739
0.39039081 0.045809895 0.85026145
0.38708535 0.046745591 0.85012728
0.38499084 0.047435254 0.84976828
0.3783555 0.04915677 0.84994274
0.37506846 0.050093479 0.84979165
0.37472185 0.050133623 0.84994173
0.3705233 0.051279761 0.84989119
0.36908525 0.051651813 0.84993196
0.368983 0.051625624 0.85008395
0.3667258 0.052288838 0.84992361
0.36479667 0.05280748 0.84992301
0.36432418 0.052901633 0.85001588
0.36419678 0.052964322 0.84993535
0.36362833 0.053179413 0.84975886
0.36323628 0.05318772 0.85003364
0.35997283 0.054044217 0.8500917
0.35598233 0.055196933 0.84986424
0.35391539 0.055732124 0.84992164
0.34456247 0.058143333 0.85021114
0.34289837 0.058687896 0.84993547
0.34166721 0.058995046 0.85000265
0.34103847 0.059183165 0.84994835
0.34081674 0.059201248 0.85006589
0.33374685 0.061247282 0.84965217
0.3324517 0.061469875 0.85000741
0.33136636 0.061793767 0.84991616
0.33097011 0.061929785 0.84983253
0.33087456 0.06181369 0.85023391
0.32947311 0.062319629 0.84986776
0.32860017 0.062625818 0.84966505
0.32660732 0.063136585 0.84973526
0.32534498 0.063383751 0.84999591
0.32418674 0.063725136 0.84991062
0.32196695 0.06433519 0.84987235
0.44291788 0.031640984 0.8505764
0.44286376 0.03165774 0.8505702
0.44272929 0.031812057 0.85023558
0.44259012 0.031940706 0.84997725
0.44254166 0.031977922 0.84990883
0.44249129 0.032025553 0.84981227
0.44231027 0.032049797 0.84988129
0.44226694 0.032084234 0.8498168
0.44220221 0.032108299 0.8497979
0.44215322 0.032122254 0.8497957
0.44193 0.032200716 0.84974337
0.441874 0.032227881 0.84970903
0.44176513 0.032264836 0.84968722
0.44170973 0.032288544 0.84966224
0.44149792 0.032381207 0.84956104
0.44143474 0.032396577 0.84956557
0.44138449 0.032417499 0.84954458
0.44133273 0.032447077 0.84950018
0.44115561 0.032475486 0.84955454
0.44098148 0.032513261 0.84958005
0.44068232 0.032548107 0.84970891
0.44017062 0.032705821 0.84965169
0.4399825 0.032691561 0.84983516
0.4397006 0.032786079 0.84978199
0.43947235 0.032840602 0.8498013
0.43940741 0.032839663 0.84985334
0.43925446 0.032941252 0.84968209
0.43920094 0.032954536 0.84968519
0.43883386 0.032979093 0.84989488
0.4388113 0.033105806 0.84955335
0.43849218 0.033069886 0.84989774
0.43831447 0.033101767 0.84994268
0.43825972 0.033121988 0.84992707
0.43815729 0.033200935 0.84978151
0.43793827 0.033281825 0.84971911
0.43788648 0.033311404 0.84967476
0.43771648 0.033378325 0.84961462
0.4376536 0.033391967 0.84962386
0.43742141 0.033442326 0.84965789
0.43730202 0.033459879 0.84969902
0.43707347 0.033516124 0.84971362
0.43640026 0.033718891 0.84965169
0.43628028 0.03373991 0.84968346
0.43611383 0.033812724 0.84960389
0.43588889 0.033874869 0.84959912
0.43578285 0.033947937 0.84947288
0.43554625 0.033970878 0.84958792
0.43513152 0.034054168 0.84966761
0.4349649 0.034101993 0.84965897
0.43491015 0.034122214 0.84964335
0.43485507 0.034144163 0.84962308
0.43467879 0.034194089 0.84961587
0.4342809 0.034287065 0.84965527
0.43404451 0.034334995 0.84969938
0.4338299 0.034443296 0.84955609
0.43335602 0.034519389 0.84970117
0.4327991 0.034721948 0.84955132
0.43255469 0.034736596 0.8496958
0.43238467 0.034803502 0.84963572
0.43221742 0.0348548 0.84961772
0.43210196 0.034876518 0.84964406
0.431811 0.034969665 0.84960169
0.43175718 0.034984671 0.84960014
0.43169853 0.035000741 0.84959924
0.43153098 0.035053767 0.84957659
0.43141395 0.035084158 0.84957957
0.43134695 0.035068646 0.84967446
0.43111727 0.035105124 0.84974587
0.43077248 0.035213277 0.849702
0.43072432 0.035248756 0.84963816
0.42957228 0.035555385 0.84964645
0.42922544 0.035648979 0.84964532
0.42874867 0.035688974 0.84989476
0.42868721 0.035720661 0.84985173
0.42816556 0.035803773 0.85001326
0.42810893 0.035834409 0.84996963
0.42800766 0.035933152 0.84976715
0.42765999 0.036005214 0.84982759
0.42753732 0.036015138 0.8498928
0.42748824 0.036055826 0.84981501
0.42737514 0.036090367 0.84980321
0.42731738 0.036101222 0.84981638
0.42679408 0.036219753 0.84987891
0.42673057 0.036236852 0.84987879
0.42667973 0.036261231 0.84984845
0.42662311 0.036291867 0.84980476
0.42639062 0.036343977 0.84983408
0.42616493 0.036436312 0.84974438
0.42611736 0.036468327 0.84968996
0.42588633 0.036538459 0.84966713
0.42570734 0.036577284 0.84969342
0.42554075 0.03662511 0.84968472
0.4253144 0.036720924 0.84958565
0.42519248 0.036700644 0.8497358
0.42507607 0.036727563 0.84974813
0.4249647 0.036778428 0.84968889
0.42490214 0.036790326 0.84970278
0.42478779 0.036831811 0.84967232
0.42473254 0.036828786 0.84972286
0.42443591 0.036901452 0.84974277
0.42432642 0.036941901 0.84971154
0.42427167 0.036962122 0.84969598
0.42415354 0.036972731 0.84975582
0.4238596 0.037056506 0.84974217
0.42368999 0.037094973 0.84976232
0.42356855 0.037097946 0.8498463
0.42334521 0.037203126 0.84971845
0.42328152 0.037195243 0.8497892
0.42322266 0.037186317 0.84985924
0.42304853 0.037224084 0.84988475
0.42265168 0.037363574 0.84979177
0.42230514 0.037455425 0.84979534
0.42212999 0.03752514 0.84973121
0.42201295 0.037555516 0.84973419
0.4219574 0.037554227 0.84978014
0.42178184 0.037573941 0.84985787
0.4216646 0.037657775 0.84970975
0.42143786 0.037703626 0.84975237
0.42120537 0.037755713 0.84978175
0.4210372 0.037812226 0.84974968
0.42068627 0.037876658 0.8498342
0.42057368 0.037934467 0.84975624
0.42039627 0.037964605 0.84980589
0.42034027 0.03799177 0.84977156
0.41976333 0.038150288 0.84976166
0.41959071 0.038179375 0.8498106
0.41953382 0.038211755 0.8497622
0.41947845 0.038235441 0.84973729
0.41935802 0.038284928 0.84968877
0.41924194 0.038310103 0.84970582
0.41911936 0.038293295 0.8498466
0.41889265 0.038339138 0.84988928
0.41883728 0.038362838 0.84986436
0.41872343 0.038427569 0.84976768
0.41831785 0.038563952 0.84969008
0.4182637 0.038580693 0.84968388
0.41784981 0.038607061 0.84992409
0.41779885 0.038658157 0.84981817
0.41773802 0.038686372 0.84978455
0.41756451 0.038720675 0.84981948
0.41733181 0.038747787 0.84991968
0.41721103 0.038747281 0.85001302
0.41710314 0.038830757 0.84985876
0.41693074 0.038884841 0.84983677
0.41669095 0.038951874 0.84982944
0.41652197 0.038986862 0.84985888
0.41635001 0.039012484 0.84991717
0.4162336 0.039039396 0.84992957
0.41617525 0.039053723 0.84993339
0.41611832 0.039086089 0.84988505
0.41577211 0.039176203 0.84989327
0.41559613 0.039224394 0.84989071
0.41553563 0.039250866 0.8498618
0.41542158 0.039290622 0.84983599
0.41519096 0.0393323 0.84989345
0.41501495 0.039380498 0.84989089
0.41495505 0.039403506 0.84987128
0.41478392 0.039450631 0.84986806
0.41466826 0.03944736 0.84996533
0.41455042 0.039456218 0.85002983
0.41437083 0.039498515 0.85004669
0.41431925 0.039553091 0.84993148
0.41425925 0.039602824 0.84983635
0.41403046 0.039634086 0.84992182
0.41356552 0.039738283 0.84998053
0.41344211 0.039778396 0.8499608
0.41332757 0.0397949 0.85000122
0.41327465 0.039804712 0.85001373
0.41293007 0.039937854 0.84989893
0.41275358 0.039962776 0.84996259
0.4126946 0.039980583 0.84995705
0.4126341 0.040007062 0.84992814
0.41252398 0.040050969 0.84988761
0.41240615 0.040059842 0.8499521
0.41205561 0.040174261 0.84989482
0.41200033 0.040171228 0.84994543
0.41188559 0.040162742 0.85005677
0.41182476 0.040190957 0.85002315
0.41177145 0.040229216 0.84995538
0.41158602 0.040226057 0.8501054
0.41153598 0.040271945 0.85001349
0.41147485 0.040301897 0.84997523
0.41142103 0.04031691 0.84997368
0.41113573 0.040430523 0.84986907
0.41107818 0.040466368 0.84981138
0.41089872 0.040481932 0.84990382
0.41072378 0.04049819 0.84999084
0.41043407 0.040584393 0.84996724
0.41026086 0.040616959 0.85000676
0.41002876 0.040719032 0.84989429
0.40997401 0.040739253 0.84987873
0.40968099 0.040817834 0.84987915
0.4095003 0.040840343 0.84995294
0.40910015 0.040972196 0.84988403
0.40880322 0.041046605 0.84989917
0.40845528 0.041120417 0.84995496
0.40840486 0.041116334 0.85000485
0.40810639 0.041199423 0.84999663
0.4079369 0.041211158 0.85009229
0.40787154 0.041238688 0.85006416
0.40781865 0.041248485 0.85007662
0.40770626 0.041252844 0.85014975
0.4075273 0.041291662 0.85017598
0.4069472 0.041415818 0.8502658
0.40688789 0.041435353 0.85025561
0.40682954 0.041449688 0.85025942
0.40665779 0.041500285 0.85024679
0.4059571 0.041700654 0.85021251
0.4058435 0.041711956 0.85026693
0.40566802 0.0417834 0.85019821
0.40549296 0.041826375 0.85020971
0.40519881 0.041963607 0.85004497
0.405029 0.04197707 0.85013598
0.40491024 0.041991152 0.85018647
0.40484786 0.042028047 0.85012949
0.40456206 0.042118408 0.85009104
0.40438795 0.042156175 0.85011661
0.40432742 0.042182654 0.85008764
0.40426391 0.042199761 0.85008752
0.40409711 0.042222597 0.85014975
0.40380201 0.042365037 0.849971
0.40351373 0.042469285 0.84989518
0.40339765 0.042494468 0.84991217
0.40281206 0.042623162 0.84999335
0.40275154 0.042649634 0.84996438
0.40251938 0.042699993 0.84999841
0.40199706 0.042865023 0.8499285
0.40182012 0.042918414 0.84991193
0.40176189 0.042906009 0.84999132
0.40158108 0.04295525 0.84998953
0.40141055 0.042998917 0.84999561
0.40135238 0.043038227 0.84992856
0.4012363 0.04306341 0.84994555
0.40105888 0.043093547 0.8499952
0.40077022 0.043147817 0.85006118
0.40064886 0.043202519 0.84999859
0.40024441 0.043280222 0.85008627
0.39989388 0.04339464 0.85002899
0.39965674 0.043472782 0.84998822
0.39959747 0.04349231 0.84997797
0.39954066 0.043497957 0.85000521
0.39930537 0.043565683 0.84999239
0.39872402 0.043696783 0.8500635
0.39866629 0.043707639 0.85007668
0.3984901 0.043730833 0.85014504
0.39843124 0.043721907 0.85021508
0.39831132 0.043794647 0.8501004
0.39790738 0.04389561 0.85012186
0.397789 0.04395967 0.85003054
0.3977257 0.044001773 0.84995949
0.39738116 0.044056483 0.85006666
0.39726231 0.044097289 0.85004163
0.3970826 0.044166304 0.84998286
0.39702189 0.044167787 0.85002488
0.39691371 0.044174559 0.850088
0.39685103 0.044213191 0.85002625
0.39678556 0.044267446 0.84992254
0.39673018 0.044291131 0.84989756
0.39643645 0.044399902 0.84981304
0.3963809 0.044398613 0.849859
0.39632481 0.044374064 0.84997118
0.39614999 0.044363581 0.85013378
0.39568624 0.044460841 0.85021126
0.39515892 0.044601917 0.85021293
0.39480335 0.044692397 0.85022724
0.39451256 0.044810534 0.85011399
0.39416122 0.044903427 0.85011828
0.39398244 0.044967249 0.85007364
0.39392287 0.044988513 0.85005867
0.39386326 0.045009784 0.85004383
0.39344829 0.045146517 0.84997243
0.39333427 0.045186274 0.84994662
0.39316437 0.04514803 0.85018408
0.39310944 0.045143262 0.8502394
0.39304623 0.045158632 0.85024393
0.39299366 0.045166701 0.85026109
0.39281139 0.045197889 0.85031146
0.39252168 0.0452841 0.8502878
0.39228702 0.045348339 0.8502844
0.3917537 0.045549139 0.85012162
0.39140832 0.045582324 0.85029036
0.3913475 0.04561054 0.8502568
0.39104441 0.045719668 0.85017836
0.39099026 0.045736425 0.85017216
0.39087695 0.045745984 0.85023129
0.3908211 0.045746423 0.85027254
0.39052603 0.045810424 0.85031581
0.39040622 0.045856431 0.85027659
0.39034057 0.04588569 0.85024375
0.39018148 0.045865126 0.85042298
0.39005518 0.045947589 0.85028559
0.38999251 0.04598622 0.8502239
0.38970041 0.046059594 0.85023838
0.38952237 0.046093196 0.85027868
0.3889969 0.046223871 0.85030842
0.38888019 0.046252526 0.85031611
0.38864347 0.046302192 0.85035551
0.38840947 0.046362966 0.85036153
0.38787776 0.046528362 0.85029769
0.38775221 0.046580628 0.8502453
0.38751757 0.046644874 0.8502419
0.38727683 0.046717122 0.85022044
0.38687444 0.046809405 0.85026532
0.3867566 0.046818271 0.85032988
0.38651824 0.046903364 0.85027027
0.38639474 0.046970189 0.85017502
0.38610432 0.047008157 0.85028839
0.38562492 0.047167212 0.8502028
0.38545048 0.047206722 0.85022366
0.3853879 0.047218621 0.85023761
0.38533843 0.047209337 0.8503015
0.38528079 0.04719346 0.85039032
0.38484713 0.047461078 0.84996253
0.38443613 0.047523536 0.85009837
0.38434911 0.047385536 0.85055518
0.3839097 0.047659412 0.85011411
0.38379279 0.047663078 0.85019267
0.38373971 0.047647886 0.85027611
0.38368228 0.047657005 0.85029393
0.38361382 0.047701895 0.85021889
0.38349247 0.04775659 0.85015643
0.38331217 0.047829069 0.85008836
0.3830868 0.047841236 0.85022533
0.38301989 0.047877446 0.85017371
0.38296297 0.047909826 0.85012537
0.38289762 0.047937356 0.85009718
0.38283679 0.047965556 0.85006356
0.38231668 0.048039995 0.85024846
0.38218245 0.048140869 0.85006499
0.38189563 0.048184723 0.85015899
0.38172254 0.048190556 0.85027421
0.38136047 0.048317485 0.85019028
0.38130572 0.048337705 0.85017467
0.38112283 0.048372373 0.85021567
0.38106745 0.048396058 0.85019064
0.38064519 0.048547737 0.85008252
0.38053074 0.048537515 0.85019851
0.38034517 0.048639521 0.85005093
0.3800028 0.048682079 0.85019088
0.37993106 0.048719324 0.85013998
0.37969238 0.048806138 0.85007572
0.37957567 0.048834793 0.85008341
0.37951979 0.048835233 0.85012466
0.37946114 0.048851296 0.85012382
0.37926638 0.048978642 0.84991145
0.3792063 0.04897666 0.84996277
0.37903279 0.049010962 0.84999764
0.37890166 0.049094476 0.84986103
0.37818986 0.0492789 0.84988034
0.37808913 0.049244009 0.85005569
0.37772408 0.049361579 0.8500005
0.37765658 0.049401253 0.84993958
0.37730348 0.049477845 0.84999132
0.37725428 0.049466819 0.85005999
0.37703386 0.049451217 0.85027182
0.37697428 0.049472488 0.85025692
0.37683523 0.049574405 0.85007417
0.37669399 0.049688481 0.84985864
0.3764185 0.049694836 0.85005021
0.3763589 0.049716108 0.85003531
0.37630519 0.049704388 0.85010934
0.37619808 0.04967922 0.85026205
0.37613726 0.049707435 0.85022843
0.3760688 0.049752325 0.85015345
0.37594777 0.049805284 0.85009563
0.37571198 0.049849741 0.85014904
0.37558487 0.049910694 0.85007322
0.374569 0.050157748 0.85014653
0.37451488 0.050174505 0.85014033
0.37428948 0.050186671 0.8502773
0.37422228 0.05022461 0.85022104
0.37397671 0.050297901 0.8502003
0.37384745 0.050370999 0.8500917
0.37356094 0.050413109 0.8501904
0.37349683 0.050433695 0.85018092
0.37336692 0.050510272 0.85006297
0.37278599 0.050612919 0.85021424
0.37271661 0.050663009 0.85012519
0.37246484 0.05077102 0.85001099
0.37240463 0.050795756 0.84998673
0.37223515 0.050807491 0.8500824
0.37216732 0.050848909 0.85001677
0.37192023 0.050930873 0.84997272
0.37173104 0.051026985 0.84984452
0.37161681 0.051041745 0.84988964
0.37149185 0.051090539 0.84984648
0.37084413 0.05120267 0.85002178
0.37066936 0.051243909 0.85003793
0.37023526 0.051409833 0.84989846
0.37012628 0.051395088 0.85002309
0.36959141 0.051526122 0.85005897
0.36952546 0.051557124 0.85002142
0.36939475 0.051612176 0.84996498
0.36917111 0.051640652 0.8500545
0.36898997 0.051691622 0.85004795
0.36887884 0.051689029 0.85013986
0.36867175 0.051807381 0.84996235
0.36855504 0.051836029 0.84996998
0.36850369 0.051837161 0.85000587
0.3683809 0.051873796 0.84999549
0.36748689 0.052089415 0.85006517
0.36711979 0.052192405 0.85005283
0.36705166 0.052235551 0.8499825
0.36699176 0.052258566 0.84996295
0.36667681 0.05238194 0.84985328
0.3664704 0.052339934 0.85012913
0.36604401 0.052462459 0.8501066
0.36583474 0.052592956 0.84989643
0.36577001 0.052617021 0.84987748
0.36531895 0.05264309 0.85014677
0.3648864 0.052800335 0.85003066
0.36476329 0.05283872 0.85001564
0.36469609 0.052876651 0.84995937
0.3645663 0.052926503 0.84991699
0.36358064 0.053238757 0.84978276
0.36301786 0.053265713 0.85013449
0.36246467 0.053447448 0.85004079
0.36239776 0.053483658 0.84998918
0.36216661 0.053502083 0.85011292
0.36183664 0.053683795 0.84984946
0.36173466 0.053655855 0.8500061
0.3616721 0.053667761 0.85002005
0.36157683 0.053628348 0.85020411
0.36145127 0.053680614 0.8501516
0.36129707 0.053789161 0.84996164
0.36123469 0.053826049 0.84990466
0.36106211 0.053855129 0.84995353
0.3609097 0.053823106 0.85016012
0.36083487 0.053877726 0.85006249
0.36053559 0.053939305 0.85011578
0.36022872 0.054017551 0.8501277
0.35951397 0.05419261 0.8501758
0.35913533 0.054308116 0.85013682
0.35906285 0.054375574 0.85000098
0.35892329 0.054454237 0.84988451
0.35881823 0.054443657 0.8499943
0.35866007 0.054417878 0.8501876
0.35859036 0.054469712 0.85009384
0.35844225 0.05457025 0.84992194
0.35832009 0.054603435 0.84992087
0.35826701 0.054588243 0.85000432
0.35798204 0.054621682 0.85012639
0.35780245 0.054663986 0.85014325
0.35756481 0.054718859 0.85016865
0.35748053 0.054800555 0.85000145
0.35701019 0.054882549 0.8501271
0.3569324 0.054927796 0.8500582
0.35649467 0.055087827 0.84993815
0.35638869 0.05508244 0.850034
0.35631302 0.055115543 0.84999788
0.35625249 0.055142023 0.84996891
0.35613704 0.055163734 0.84999532
0.35600507 0.055225722 0.84992015
0.35557759 0.055328466 0.84995449
0.35534149 0.055374667 0.85000324
0.35521996 0.055404373 0.85001165
0.35497984 0.055473141 0.84999961
0.35454255 0.055604711 0.84995973
0.35445946 0.055679463 0.84981132
0.35439599 0.055696569 0.8498112
0.35434866 0.055675142 0.84990788
0.35425028 0.055653088 0.85004514
0.35411957 0.055708133 0.8499887
0.35379279 0.055845767 0.84984767
0.35373566 0.055853151 0.8498702
0.35367855 0.055860527 0.84989274
0.35352492 0.055835448 0.85008061
0.35346782 0.055842832 0.85010314
0.35338998 0.055888079 0.85003424
0.35318446 0.055997744 0.84988016
0.3529563 0.056025542 0.84997499
0.35284144 0.056043781 0.85001075
0.35257638 0.056017831 0.85028583
0.35215437 0.056246214 0.84996033
0.35183582 0.056363702 0.84986997
0.35155365 0.056381516 0.85003424
0.35143274 0.056407742 0.85005188
0.35094255 0.056549117 0.85002458
0.35059625 0.056587517 0.85017931
0.35007679 0.056788631 0.85000503
0.34964043 0.056915 0.84997928
0.34950972 0.056970045 0.84992284
0.34907335 0.057096407 0.84989703
0.34900829 0.057122193 0.84987354
0.34883428 0.057133242 0.84997463
0.34856176 0.057148963 0.85013735
0.3483755 0.057202712 0.85012686
0.34797463 0.057364769 0.84997308
0.3479242 0.057360686 0.85002297
0.3478747 0.057351403 0.85008693
0.3474136 0.057538189 0.84990889
0.34734249 0.05757197 0.84986734
0.34727591 0.057606444 0.84982038
0.34693444 0.057643794 0.84997439
0.34683061 0.057626262 0.85010302
0.34675217 0.057674982 0.8500247
0.34651035 0.057727441 0.85006016
0.34612346 0.057863094 0.84997046
0.34568337 0.05801028 0.84988856
0.34513742 0.058125369 0.84997797
0.34441394 0.058297314 0.85004157
0.34423965 0.058440253 0.84976947
0.34404323 0.05839441 0.85004866
0.34341356 0.058587722 0.84998035
0.34327441 0.058637932 0.84994411
0.34300068 0.058660597 0.85008812
0.34291616 0.05871731 0.8499918
0.34259248 0.058837578 0.84989762
0.34245723 0.058891952 0.84984654
0.34235063 0.058890037 0.84993303
0.34208947 0.058868259 0.85019338
0.34189761 0.059031695 0.84987664
0.34156859 0.059051327 0.85007131
0.34144223 0.059082083 0.85008037
0.34122777 0.059085213 0.85023463
0.34097534 0.05927512 0.84988904
0.34091949 0.059275568 0.84993029
0.34088367 0.059241615 0.85005355
0.34069258 0.059296414 0.85004383
0.34048247 0.059405394 0.84989512
0.34033963 0.059476443 0.84980267
0.34015521 0.059519775 0.84982026
0.34012794 0.059463941 0.84999907
0.33995146 0.05948887 0.85006273
0.33981374 0.059557118 0.84997427
0.3397423 0.059592649 0.84992802
0.33964333 0.059574068 0.85005593
0.33946046 0.059608728 0.85009694
0.33930811 0.059706859 0.849935
0.33910051 0.059801944 0.84982371
0.3389475 0.059773393 0.85002095
0.3385376 0.059855618 0.85009992
0.33822495 0.059940137 0.85009849
0.33814806 0.059980176 0.85004365
0.33786964 0.060107313 0.84989548
0.33768582 0.060147189 0.84992242
0.33749101 0.060222812 0.8498565
0.33726409 0.060243674 0.8499701
0.33714378 0.060266428 0.84999716
0.33707905 0.060290478 0.84997833
0.33700061 0.060339205 0.84990007
0.33686599 0.060390092 0.8498584
0.33670288 0.060392104 0.84997678
0.33609283 0.060527764 0.85005677
0.33540183 0.060726039 0.85002112
0.33496916 0.060831569 0.8500514
0.33401719 0.061111502 0.8499831
0.333947 0.061140068 0.84995562
0.33322752 0.061289452 0.85008001
0.33305943 0.061397664 0.8499015
0.33271611 0.061445437 0.85002744
0.33254477 0.06146758 0.85009503
0.33240345 0.061529927 0.85002601
0.33229744 0.061524563 0.85012186
0.33202091 0.061641283 0.85000181
0.33138281 0.061829768 0.84995359
0.33132601 0.061835416 0.84998083
0.33121365 0.061839752 0.85005403
0.33092886 0.061976619 0.8498832
0.33045524 0.062050976 0.85003293
0.33040422 0.062050365 0.85007346
0.33019754 0.062140249 0.84997618
0.3298651 0.062257417 0.84989738
0.32927543 0.062356956 0.85006416
0.32882875 0.062488891 0.85003042
0.32873815 0.062553592 0.8499161
0.32767722 0.062818758 0.84997249
0.32730743 0.062910654 0.84999359
0.32725 0.062919773 0.85001147
0.32698324 0.063007675 0.84996557
0.32687446 0.063017927 0.85001928
0.32678482 0.063077413 0.84991908
0.32657453 0.06316141 0.84984124
0.32639775 0.063188083 0.84990025
0.32632631 0.063223593 0.84985399
0.32626826 0.063236184 0.84986252
0.32595748 0.063310273 0.84988916
0.32586935 0.063361101 0.84981233
0.32567313 0.063340239 0.85002065
0.32550719 0.063436307 0.84987485
0.32536778 0.063409813 0.85005593
0.32528418 0.063461311 0.84997368
0.32510582 0.063575111 0.84978724
0.32382154 0.063867025 0.8499378
0.32368085 0.063925929 0.84987807
0.32347277 0.063919328 0.85005498
0.32339835 0.063945465 0.85003757
0.3233254 0.063989662 0.84996796
0.32299605 0.06408947 0.84993595
0.32291824 0.064134724 0.84986699
0.32259464 0.064228259 0.84984833
0.32245335 0.06429062 0.84977931
0.32237259 0.064248063 0.84996122
0.32226664 0.064164259 0.85027909
0.32204169 0.064356558 0.84990579
0.32193896 0.064437233 0.84975553
0.32175675 0.064389996 0.85002786
0.32159209 0.06440068 0.85012281
0.32123539 0.064471371 0.8501941
0.32115334 0.064514197 0.85013521
0.44295457 0.031591445 0.85066038
0.44275343 0.031728536 0.85042536
0.44272017 0.03181085 0.85021764
0.44268093 0.031874433 0.8500675
0.44258067 0.031941235 0.84995461
0.4423601 0.032030806 0.84986889
0.44230115 0.03204859 0.84986335
0.44203067 0.032157339 0.84976125
0.44192085 0.032199509 0.84972543
0.44186425 0.032230154 0.84968174
0.44181433 0.032249317 0.84966546
0.44170123 0.032283865 0.84965372
0.44164851 0.032318667 0.84959531
0.44154292 0.032363266 0.84954929
0.44132328 0.032447621 0.84947759
0.44103307 0.032510579 0.84952015
0.4409633 0.03251069 0.8495729
0.44091132 0.032515287 0.84959942
0.44080028 0.032564409 0.84954488
0.44049609 0.032575324 0.84974533
0.44032195 0.032613091 0.8497709
0.440166 0.032705329 0.84962839
0.43997666 0.032698013 0.84979314
0.43987578 0.032768279 0.84967095
0.43964064 0.03280928 0.84973377
0.43945932 0.03283526 0.84979814
0.43918788 0.032949217 0.84968203
0.43912184 0.032928489 0.84979093
0.43874502 0.033112034 0.849558
0.43867916 0.033116296 0.84959602
0.43854582 0.033081815 0.8497951
0.43847883 0.03306631 0.84988993
0.43803567 0.033230856 0.84976125
0.43792915 0.033280663 0.84970123
0.43787736 0.033310249 0.84965688
0.43775755 0.033356257 0.84961772
0.43764445 0.033390813 0.84960598
0.4372929 0.033458717 0.84968114
0.43685281 0.033605918 0.84959924
0.43667716 0.03365238 0.84960139
0.43627116 0.03373877 0.84966564
0.43615618 0.033783741 0.84962577
0.43610895 0.033814013 0.849576
0.435927 0.033843458 0.84963107
0.43582973 0.03391964 0.84948939
0.43577403 0.033945069 0.84945977
0.43548444 0.034004547 0.84951168
0.43512177 0.034056515 0.84964043
0.4349567 0.034095652 0.84965521
0.43490103 0.034121089 0.84962559
0.43444797 0.034262754 0.84956914
0.43438992 0.034275346 0.84957767
0.43403509 0.034335621 0.84967691
0.43382081 0.034442186 0.84953827
0.43376091 0.034465186 0.84951872
0.4333469 0.034518279 0.8496834
0.43312162 0.034582168 0.84967387
0.43306315 0.034623228 0.8496021
0.43301231 0.034647606 0.84957176
0.43289745 0.034665845 0.84960747
0.4319821 0.034922801 0.84957635
0.43192312 0.0349406 0.84957087
0.43152124 0.035056151 0.84954947
0.43140483 0.03508307 0.84956181
0.43134302 0.035064772 0.84966063
0.43122095 0.035071224 0.84973526
0.4311662 0.035091445 0.84971964
0.43041593 0.035309255 0.84967375
0.43036932 0.035336062 0.84963334
0.43025404 0.035382763 0.84958881
0.4290309 0.03564474 0.84977758
0.42892313 0.035701498 0.8496989
0.42809984 0.035833351 0.84995192
0.42770925 0.035989836 0.84980607
0.42752793 0.036015816 0.84987044
0.42747852 0.036058247 0.84978789
0.42730409 0.036097758 0.84980869
0.42724872 0.036121443 0.84978378
0.42690343 0.036206365 0.84980607
0.42684084 0.036218263 0.84982002
0.42672208 0.036232345 0.84987044
0.42667064 0.036260188 0.84983075
0.42661339 0.036294304 0.8497777
0.42638153 0.036342934 0.84981644
0.42610765 0.036470763 0.8496629
0.42576146 0.036560878 0.84967113
0.42569888 0.036572777 0.84968507
0.42546484 0.036633566 0.84969103
0.42535895 0.036679901 0.84964037
0.42530501 0.036721639 0.84956324
0.42524099 0.036715493 0.84962934
0.42484128 0.036818884 0.84964073
0.42460343 0.036848783 0.84973705
0.42448971 0.036886796 0.84971595
0.42426226 0.036962844 0.84967363
0.42414445 0.036971718 0.84973812
0.424023 0.036974691 0.84982216
0.4239628 0.036999434 0.84979784
0.42385504 0.037056185 0.84971917
0.42380294 0.037087508 0.84967017
0.42350194 0.037132785 0.84977096
0.42339745 0.037197158 0.84966815
0.42333612 0.03720212 0.84970081
0.42327243 0.037194237 0.84977156
0.42298469 0.037243307 0.84985149
0.4224591 0.037400708 0.84980577
0.42229608 0.037454434 0.8497777
0.42194861 0.0375515 0.84976721
0.42177242 0.037574694 0.84983557
0.42142817 0.037706107 0.84972543
0.42119145 0.03775578 0.84976482
0.42114392 0.037787795 0.84971046
0.42102361 0.037810549 0.84973752
0.42072681 0.037858248 0.84982824
0.42062122 0.037902847 0.84978235
0.42056459 0.037933491 0.84973866
0.42004445 0.038086362 0.84970152
0.41975394 0.038151056 0.84973943
0.41958165 0.038178407 0.84979302
0.41952443 0.038212508 0.84974003
0.41946936 0.038234472 0.84971976
0.41917729 0.038307846 0.84973419
0.41905534 0.038287565 0.84988433
0.41887873 0.038339227 0.84987247
0.41882759 0.038365342 0.84983742
0.41853479 0.038468912 0.84976697
0.41841808 0.038497552 0.84977466
0.41825464 0.038579747 0.84966636
0.41697583 0.038867153 0.84982544
0.41634032 0.03901501 0.84989035
0.41616619 0.039052784 0.84991586
0.41593215 0.039113574 0.84992182
0.41564059 0.039210185 0.84987009
0.41541252 0.039289698 0.84981847
0.4153029 0.039356865 0.84971178
0.41512415 0.039342247 0.8498891
0.41506457 0.039363503 0.84987426
0.41500589 0.039379574 0.84987336
0.41489628 0.039446741 0.84976661
0.41483763 0.039462805 0.84976578
0.41477486 0.039449714 0.84985054
0.41471899 0.039450161 0.84989178
0.41430956 0.039555646 0.84990466
0.41372821 0.039686769 0.84997565
0.41367191 0.03971567 0.84993666
0.41326562 0.039803803 0.84999621
0.41315022 0.039877221 0.84987617
0.41292101 0.03993696 0.84988141
0.4128035 0.03994409 0.84995067
0.41262504 0.040006168 0.84991062
0.41239709 0.040058941 0.84993464
0.41211098 0.040151052 0.84989154
0.41204715 0.040169902 0.84988672
0.4119916 0.040168598 0.84993267
0.41192853 0.040157251 0.85001278
0.41181573 0.040190063 0.85000569
0.41157696 0.040225163 0.85008794
0.41141197 0.040316023 0.84995627
0.4110083 0.040493704 0.84976029
0.41019034 0.040647767 0.84994638
0.41001973 0.040718168 0.84987688
0.40990362 0.040743351 0.84989393
0.40978846 0.040763319 0.84992498
0.40943855 0.040874273 0.84987706
0.40932626 0.040930331 0.84980381
0.40926996 0.040959232 0.84976482
0.40920863 0.040964194 0.84979743
0.40903121 0.040994331 0.84984708
0.40879872 0.041046433 0.8498764
0.40844655 0.041117825 0.84994221
0.40792724 0.041213773 0.85006559
0.40751827 0.041290812 0.85015857
0.40734485 0.041376822 0.85004711
0.40716836 0.041401759 0.85011077
0.40693754 0.041418448 0.85023904
0.40687948 0.04143104 0.85024762
0.40682051 0.041448846 0.85024202
0.40670833 0.041478179 0.85024428
0.40594807 0.041699827 0.85019517
0.40588674 0.041704796 0.85022771
0.40583384 0.041714601 0.85024023
0.40565899 0.041782573 0.85018086
0.40536916 0.041895501 0.85008162
0.40530422 0.041894563 0.85013366
0.40502059 0.041972786 0.850128
0.40478501 0.042042241 0.85011053
0.40467077 0.042056993 0.85015571
0.40460759 0.042072378 0.85016024
0.40455303 0.042117588 0.8500737
0.40437922 0.042153627 0.85010391
0.40431899 0.042178363 0.85007972
0.40408775 0.042223528 0.85012776
0.40367454 0.04237657 0.85000885
0.40361917 0.042400271 0.84998387
0.40350407 0.042471953 0.84986854
0.40338862 0.042493671 0.84989488
0.40326861 0.042514682 0.84992665
0.40204525 0.042830124 0.84996426
0.40198711 0.042869434 0.84989721
0.40163505 0.042914093 0.85003859
0.40157142 0.042957932 0.84996289
0.40076119 0.043147042 0.85004389
0.40069973 0.04317873 0.85000092
0.40058601 0.04321675 0.84997976
0.4002921 0.043222092 0.85018826
0.40023538 0.043279454 0.85006899
0.39970979 0.043436855 0.85002327
0.39953163 0.043497197 0.84998792
0.39947534 0.043526098 0.84994894
0.39918029 0.043590099 0.84999222
0.39912161 0.043606162 0.84999138
0.39889067 0.043649584 0.85004413
0.39853603 0.043734856 0.8500725
0.39848107 0.043730088 0.85012782
0.39830202 0.04379563 0.85007846
0.39824602 0.043822795 0.85004413
0.3981891 0.043855168 0.84999585
0.39766082 0.044001468 0.84998345
0.39701349 0.044163585 0.85001701
0.39637095 0.044403084 0.84982777
0.39625758 0.044360928 0.85003334
0.39614549 0.044363551 0.85011119
0.39596888 0.044415198 0.85009933
0.39567724 0.044460118 0.85019404
0.39526021 0.044582278 0.85016537
0.3949129 0.044652611 0.85023052
0.39479434 0.044691682 0.85021007
0.39461595 0.044805475 0.85002363
0.3942709 0.044836938 0.85019708
0.39415222 0.044902727 0.85010111
0.39403212 0.044950478 0.8500573
0.39391387 0.044987805 0.85004151
0.3934989 0.045124546 0.8499701
0.39343867 0.045149297 0.8499459
0.39325941 0.04518985 0.84996748
0.39321208 0.045168407 0.85006416
0.39298373 0.045171209 0.85022992
0.39292455 0.045164019 0.85029531
0.39274815 0.04524067 0.85021245
0.39239845 0.045298167 0.85031569
0.39221677 0.04540433 0.85015339
0.39198175 0.045418598 0.85029179
0.39139932 0.045581646 0.85027325
0.39069158 0.045743518 0.85035336
0.39045683 0.045834489 0.85027444
0.39039725 0.045855768 0.85025954
0.39033219 0.045881554 0.850236
0.39028147 0.045879208 0.85028124
0.39010826 0.045911767 0.85032082
0.38975474 0.046016827 0.85029233
0.38951278 0.046096012 0.85025221
0.38840079 0.04636059 0.85034907
0.38834089 0.04638359 0.85032958
0.38816521 0.046430044 0.85033172
0.38810807 0.046437435 0.85035419
0.3880454 0.046476051 0.85029256
0.38798642 0.046493858 0.85028702
0.38786817 0.046531186 0.85027134
0.38769403 0.04656896 0.85029685
0.38650957 0.046900988 0.85025793
0.38632771 0.046982162 0.85016644
0.38627058 0.046989545 0.85018903
0.386154 0.046991467 0.8502723
0.38597226 0.047045916 0.85025638
0.38585511 0.047103032 0.85018378
0.38574088 0.0471178 0.85022891
0.38568068 0.047142543 0.85020465
0.38561594 0.047166593 0.85018575
0.38531861 0.047269478 0.85012072
0.38527119 0.047196314 0.85036391
0.38494405 0.047492579 0.84977412
0.38483787 0.04746221 0.8499409
0.38476706 0.047494255 0.84990394
0.38460085 0.047513619 0.84997559
0.38434047 0.047383189 0.8505429
0.38417342 0.047668077 0.84986347
0.38367361 0.047654673 0.8502816
0.38343093 0.047764055 0.85015655
0.38336775 0.047779433 0.85016114
0.38323754 0.047857739 0.85003847
0.38318834 0.047846712 0.85010707
0.38288864 0.04793676 0.85008019
0.38276866 0.047957778 0.85011196
0.38260245 0.047977149 0.85018361
0.38254175 0.047978625 0.85022557
0.38230771 0.048039414 0.85023153
0.3820577 0.048163727 0.85006976
0.38171294 0.048193455 0.85024786
0.38153994 0.04825101 0.85021651
0.38147706 0.048264652 0.85022569
0.38135213 0.048313446 0.85018265
0.38129675 0.048337139 0.85015768
0.38105881 0.048393764 0.85017836
0.38099921 0.048415028 0.85016358
0.38052118 0.048540413 0.85017222
0.37992302 0.048713565 0.85013705
0.37902319 0.049013875 0.84997141
0.37889299 0.049092188 0.84984875
0.3788034 0.048994802 0.85019255
0.37836948 0.049185723 0.84998214
0.37808082 0.049239993 0.85004812
0.37778679 0.049272068 0.85018098
0.37719595 0.049430266 0.85018259
0.37682018 0.049581878 0.85003924
0.37676203 0.049621187 0.84997225
0.37668985 0.049686909 0.84984112
0.37646976 0.049669564 0.8500576
0.37612832 0.049706914 0.85021162
0.3759388 0.049804769 0.8500787
0.37587687 0.049813196 0.85010201
0.37534994 0.049925819 0.85018396
0.37500882 0.050170034 0.84975213
0.37472633 0.050189599 0.84991163
0.37456128 0.050150298 0.85014844
0.37450653 0.050170518 0.85013282
0.37421364 0.050222382 0.85020882
0.37355199 0.050412625 0.85017359
0.37342581 0.050468355 0.85011172
0.3725152 0.050751008 0.85000432
0.37245497 0.050775744 0.84998012
0.37234074 0.050790519 0.85002518
0.37222654 0.050805278 0.85007024
0.37197816 0.050894186 0.85000753
0.37184766 0.050974235 0.84988022
0.37154251 0.051068798 0.84984457
0.37148353 0.051086605 0.84983909
0.37142581 0.05109746 0.84985232
0.3713724 0.051084004 0.849931
0.37120321 0.05109401 0.85003138
0.37112653 0.051159032 0.84990561
0.37083581 0.051198728 0.85001433
0.37047651 0.051310048 0.84997261
0.36969456 0.051523052 0.84996438
0.36938581 0.051611722 0.84994823
0.36933073 0.051633686 0.84992796
0.36898106 0.051691182 0.8500312
0.36892375 0.051673569 0.8501246
0.36880907 0.051716805 0.85008949
0.36874124 0.051758215 0.85002387
0.36717775 0.05215577 0.8500877
0.36711085 0.05219198 0.85003614
0.36698252 0.052259877 0.84994155
0.36692694 0.052258573 0.84998751
0.36666787 0.052381523 0.84983653
0.36639312 0.052357681 0.85011303
0.36627796 0.052377649 0.85014409
0.36596757 0.052501731 0.85002893
0.36523882 0.052703202 0.85001302
0.36516583 0.052747399 0.8499434
0.36502138 0.052696958 0.850196
0.36475408 0.052840047 0.8499943
0.36455739 0.052926108 0.84990036
0.36449778 0.052947372 0.84988546
0.36427149 0.052964762 0.85000837
0.36396211 0.053056896 0.84998286
0.36384696 0.053076871 0.85001391
0.36378008 0.053113073 0.84996229
0.36371225 0.053154491 0.84989667
0.36313686 0.053225905 0.85013223
0.36300862 0.053267069 0.85011315
0.36283046 0.053327404 0.85007787
0.36261153 0.053460002 0.84986907
0.36220926 0.053525575 0.84998947
0.36166319 0.053667389 0.85000336
0.36162102 0.053643167 0.85010403
0.36144236 0.053680249 0.85013497
0.36136535 0.053747013 0.85000455
0.36122453 0.053832628 0.84986925
0.36090142 0.053819276 0.85015285
0.36035782 0.053947203 0.85020423
0.35984105 0.054159433 0.84999657
0.35973817 0.054136693 0.8501392
0.35957289 0.05415085 0.85022485
0.35943177 0.054238193 0.8500849
0.35931846 0.054247752 0.85014403
0.35880932 0.054443315 0.84997773
0.35875559 0.054431602 0.85005176
0.35865116 0.054417543 0.85017097
0.3582581 0.054587908 0.84998775
0.35821405 0.054574102 0.85006034
0.35763198 0.054656968 0.85026848
0.3573342 0.054866746 0.84990114
0.35707676 0.054824144 0.85021758
0.3570013 0.054882228 0.85011053
0.35692349 0.054927476 0.85004163
0.35686359 0.054950483 0.85002208
0.35666114 0.055042796 0.84991479
0.35637432 0.055086657 0.85000879
0.35630414 0.05511523 0.84998131
0.35612816 0.055163421 0.84997874
0.35563794 0.055304796 0.84995139
0.35539609 0.055357255 0.84998691
0.35521105 0.055404074 0.84999514
0.35490528 0.055502109 0.84995019
0.35478559 0.055521391 0.84998661
0.35467198 0.055532679 0.85004109
0.35461396 0.05554527 0.85004961
0.35453334 0.055606142 0.84993863
0.35444996 0.055682644 0.84978545
0.35429758 0.055650614 0.84999204
0.35404471 0.055738851 0.84993458
0.35378295 0.055850692 0.84981716
0.35353318 0.055921562 0.84980649
0.35351604 0.055835158 0.85006416
0.35345891 0.055842549 0.85008663
0.3533811 0.055887796 0.85001779
0.3530601 0.05601918 0.84988999
0.35283318 0.056040034 0.8500036
0.35265577 0.056070179 0.85005319
0.35256749 0.056017555 0.85026932
0.35215002 0.056246638 0.84993839
0.35201788 0.056283638 0.84993422
0.35195643 0.056315325 0.84989119
0.35171458 0.056367785 0.84992671
0.35154539 0.056377791 0.85002708
0.35117736 0.056485988 0.85000074
0.35110593 0.056521505 0.84995449
0.35071844 0.056660622 0.84985542
0.3505049 0.056658551 0.85002375
0.35032785 0.056817114 0.84970951
0.35023928 0.056766242 0.84992099
0.35013935 0.056752868 0.85003483
0.35006699 0.0567936 0.84997451
0.3496303 0.056921698 0.84994411
0.34956619 0.056942284 0.84993458
0.34943032 0.057000116 0.84987426
0.3493799 0.056996033 0.84992409
0.34933257 0.056974597 0.85002077
0.34913808 0.057048492 0.84995961
0.34899941 0.057121955 0.84985709
0.3488248 0.057136483 0.84994876
0.34866497 0.057146117 0.85004306
0.34855413 0.057141788 0.85013962
0.34843197 0.057174958 0.85013866
0.34818766 0.057241306 0.85013676
0.34809944 0.057318851 0.84998429
0.34801978 0.057374522 0.84988737
0.34796512 0.05736801 0.84994733
0.34791532 0.057360463 0.85000658
0.34782243 0.057333879 0.85015249
0.34740475 0.057537973 0.8498925
0.34673756 0.057681024 0.84999502
0.34656125 0.057730943 0.8499878
0.34644186 0.057748504 0.85002887
0.34578174 0.058008522 0.84979498
0.34541619 0.058102831 0.84980607
0.34534144 0.058130719 0.84978402
0.34506041 0.058168314 0.8498913
0.34499022 0.058196895 0.84986383
0.34482649 0.058202371 0.84997284
0.34456408 0.058187529 0.85021448
0.34430984 0.058387861 0.84984076
0.34422532 0.058444589 0.8497445
0.34404042 0.058386236 0.85005033
0.34391981 0.058410726 0.85007274
0.34385478 0.05843652 0.8500492
0.34377274 0.058479346 0.84999037
0.34326556 0.058637761 0.84992772
0.34309268 0.058668584 0.84997201
0.34276384 0.058791652 0.84987372
0.34244901 0.058888301 0.84983957
0.34234178 0.058889866 0.8499167
0.34219921 0.058959186 0.84982896
0.34212825 0.058887795 0.85008502
0.34189233 0.059037432 0.84984088
0.3418352 0.059044808 0.84986341
0.34173593 0.05902797 0.84998667
0.34155974 0.059051163 0.85005498
0.34143335 0.059081919 0.85006404
0.34139508 0.059061855 0.85014999
0.34121889 0.059085049 0.85021836
0.34096619 0.059276707 0.84986806
0.34082502 0.059233896 0.85009658
0.34075421 0.059265956 0.85005975
0.3406831 0.059299737 0.8500182
0.34055394 0.059346117 0.84998512
0.33994198 0.059492201 0.8500371
0.33963448 0.059573926 0.8500396
0.33951354 0.059600152 0.85005736
0.33945099 0.059612058 0.85007131
0.33923578 0.059723824 0.8499186
0.33876607 0.059802353 0.85005355
0.3383792 0.059937999 0.8499639
0.33798903 0.060066029 0.84989822
0.3379176 0.060101554 0.84985203
0.33753598 0.060207695 0.84984183
0.33743268 0.060213417 0.84990418
0.33725587 0.060240075 0.84996325
0.33713555 0.060262844 0.84999031
0.33699116 0.06034255 0.8498745
0.33663756 0.060395911 0.84999245
0.33621705 0.060485452 0.85005879
0.33557194 0.060687125 0.84997863
0.33539298 0.060725942 0.85000491
0.33525014 0.060796991 0.84991241
0.33486789 0.060906604 0.84989285
0.33475333 0.0609231 0.84993327
0.33465251 0.060914934 0.85003316
0.33450419 0.060990512 0.84993201
0.33435711 0.061059117 0.8498497
0.33430061 0.061063036 0.84988159
0.3339327 0.061144501 0.84993076
0.33384603 0.061213374 0.84980178
0.33351004 0.061246201 0.84996438
0.33344108 0.061267838 0.84995568
0.33333868 0.061268359 0.85003209
0.33304513 0.061402127 0.84987664
0.33280906 0.061448321 0.84992546
0.33270729 0.06144537 0.85001123
0.33264503 0.061455533 0.85002983
0.3325308 0.0614703 0.85007489
0.33244723 0.061521798 0.84999269
0.33238822 0.061539605 0.84998715
0.33216679 0.061555937 0.8501094
0.33200663 0.061645746 0.84997702
0.33171621 0.061683714 0.85009044
0.33160713 0.061695695 0.8501395
0.33092004 0.061976582 0.84986699
0.33071595 0.061947405 0.85010481
0.33062962 0.062014535 0.84998047
0.33055755 0.062053531 0.84992492
0.33011213 0.062178522 0.8499099
0.32992041 0.062236801 0.84989077
0.32967249 0.062297255 0.84990823
0.32933104 0.062334597 0.85006225
0.32926083 0.062363178 0.85003471
0.32913259 0.062404349 0.85001564
0.32888407 0.062468275 0.85002381
0.32810712 0.062705234 0.849944
0.32795849 0.062782526 0.84983826
0.32790899 0.062773228 0.84990227
0.32746094 0.062808692 0.85014272
0.32736945 0.062878594 0.85001439
0.32723573 0.062924296 0.84998673
0.327171 0.062948331 0.84996796
0.32708836 0.062994644 0.84989965
0.32702547 0.063008279 0.84990895
0.32686627 0.063014433 0.8500126
0.32667235 0.06316331 0.84973866
0.3265906 0.063204408 0.84968448
0.32656541 0.063163146 0.84982049
0.32558742 0.063380301 0.84994972
0.32544643 0.063440919 0.84988534
0.32541701 0.063397229 0.85003138
0.32497546 0.063604832 0.84977961
0.32467651 0.06366466 0.8498376
0.32461455 0.063673109 0.84986085
0.32439184 0.06369637 0.84996432
0.32433474 0.063703761 0.84998691
0.3235575 0.063942447 0.84990245
0.32331657 0.063989699 0.84995198
0.32324123 0.064021051 0.84992051
0.32298693 0.064091235 0.84991527
0.3226752 0.064170554 0.8499279
0.32258648 0.064224839 0.84984165
0.32250804 0.064273566 0.84976339
0.32215542 0.064243242 0.85011744
0.32203835 0.06435208 0.8498984
0.32193562 0.06443277 0.84974813
0.32189828 0.064407498 0.84984815
0.32170358 0.064377964 0.85007977
0.32158327 0.064400733 0.85010684
0.32139432 0.06444338 0.85012984
0.32131588 0.064492092 0.85005158
0.32122114 0.064475954 0.85016942
0.44196737 0.032172903 0.84973717
0.4415921 0.032347761 0.84952766
0.44136167 0.032414444 0.84951425
0.44107866 0.032489188 0.84951794
0.44090217 0.032514125 0.8495816
0.4408471 0.032536082 0.84956127
0.44060269 0.032550715 0.84970582
0.44054043 0.032560878 0.84972441
0.44048238 0.032573469 0.84973288
0.44042888 0.032586753 0.84973603
0.4402571 0.032637358 0.84972346
0.43986243 0.032764696 0.8496632
0.43963087 0.032811597 0.84970659
0.43950883 0.032818049 0.84978116
0.43939334 0.032839745 0.84980756
0.43923679 0.032935463 0.84965575
0.43917811 0.032951519 0.84965485
0.43892068 0.032908916 0.84997129
0.43885922 0.032940596 0.84992838
0.43881497 0.032980241 0.84984982
0.43860662 0.033105537 0.8496536
0.4385412 0.033081345 0.84977186
0.43791997 0.033279523 0.8496834
0.4376356 0.033387937 0.84959292
0.43684307 0.033608265 0.84957206
0.43671852 0.033628605 0.84960926
0.4366686 0.033647768 0.84959292
0.43631613 0.033720903 0.84965408
0.43591785 0.033842348 0.84961331
0.43587059 0.033872612 0.84956348
0.43582058 0.03391853 0.84947163
0.43564284 0.033950403 0.84951663
0.435574 0.033945307 0.84958339
0.43541303 0.034013599 0.84951246
0.43535653 0.034017518 0.84954441
0.43522871 0.034030221 0.84960568
0.43500528 0.034083694 0.84962428
0.43466082 0.034190126 0.849585
0.43443492 0.034257486 0.84956622
0.43425843 0.034282424 0.84962982
0.43392414 0.034410022 0.84952295
0.43357527 0.034489028 0.84956467
0.43351126 0.034482889 0.84963071
0.43345118 0.034480907 0.84968209
0.43339404 0.034488298 0.84970462
0.43333775 0.034517191 0.84966564
0.433054 0.03462214 0.8495844
0.43300316 0.034646526 0.84955406
0.43253645 0.034734413 0.84966028
0.43247449 0.03474284 0.84968358
0.4323622 0.034798905 0.84961027
0.43226081 0.034845933 0.8495543
0.43202442 0.03489387 0.84959841
0.43196875 0.034919299 0.84956872
0.43151271 0.035051614 0.84954113
0.43145704 0.035077043 0.8495115
0.43115348 0.035084486 0.84972137
0.43081024 0.035183966 0.84970081
0.43070155 0.035245925 0.84960812
0.43047205 0.035307392 0.84960872
0.43036017 0.035334997 0.84961569
0.43012881 0.03540688 0.84958816
0.42994153 0.035414137 0.84971011
0.42984569 0.035508357 0.84951627
0.42966589 0.035525665 0.84960407
0.42955405 0.035553262 0.84961104
0.42885393 0.035698466 0.84973258
0.42872623 0.035684451 0.84986943
0.42827082 0.035813279 0.84985113
0.42814764 0.035799935 0.84998262
0.42798942 0.035931058 0.8497318
0.42786562 0.035921201 0.84985387
0.42706391 0.036166877 0.84976828
0.42666182 0.036257438 0.84981775
0.4265525 0.036322869 0.84971571
0.42649025 0.036333032 0.84973431
0.42603678 0.036503166 0.84959769
0.42581129 0.036542073 0.84965909
0.42575231 0.036559857 0.84965354
0.42568976 0.036571763 0.84966749
0.42563295 0.036577411 0.84969473
0.42500219 0.036750957 0.84968328
0.42459434 0.036847785 0.84971941
0.42413533 0.03697072 0.8497206
0.42384592 0.037055194 0.84970164
0.42349797 0.037129007 0.84975737
0.42274833 0.037343353 0.84972084
0.42257214 0.037366554 0.8497892
0.42244998 0.037399724 0.84978819
0.42228696 0.03745345 0.84976017
0.42187974 0.037546799 0.84980571
0.42170784 0.037624136 0.8497175
0.42153341 0.037663639 0.84973836
0.4211351 0.037785098 0.84969759
0.42095378 0.037811086 0.84976196
0.4208338 0.037832104 0.84979367
0.4206681 0.037874721 0.84979916
0.42061239 0.03790015 0.84976947
0.42003596 0.038081944 0.84969336
0.41986215 0.038117975 0.84972358
0.41980472 0.038127095 0.84974146
0.41974482 0.038150102 0.84972191
0.41968927 0.038148805 0.8497678
0.41962853 0.038150296 0.84980983
0.41957253 0.03817746 0.84977555
0.41951564 0.038209841 0.84972715
0.41928571 0.038299762 0.84964752
0.41916817 0.038306907 0.84971666
0.4188191 0.038360931 0.84982932
0.41864878 0.038429588 0.84976453
0.41719285 0.038745411 0.84997797
0.41696674 0.038866237 0.84980804
0.41691259 0.038882986 0.84980178
0.41685343 0.038875796 0.84986717
0.41673753 0.038925961 0.84981328
0.41650411 0.038983271 0.8498286
0.41615739 0.039050132 0.84990311
0.41551745 0.039249033 0.84982687
0.41546363 0.039264053 0.84982526
0.41540343 0.039288789 0.84980106
0.41534886 0.039334014 0.84971452
0.41523042 0.039346345 0.84976971
0.41511568 0.039337866 0.84988105
0.4149369 0.03940168 0.84983635
0.41482854 0.039461903 0.84974831
0.41465011 0.039445534 0.84993041
0.41441494 0.039486527 0.84999323
0.41406819 0.039631851 0.84984565
0.41401231 0.039632283 0.84988689
0.41291133 0.039939545 0.84985471
0.41261595 0.040005289 0.84989327
0.41256389 0.040036611 0.84984422
0.41203809 0.04016903 0.84986937
0.41180694 0.040187463 0.84999299
0.41175395 0.040223993 0.84992993
0.41163439 0.04021655 0.85004193
0.41117358 0.040401615 0.84986854
0.41099924 0.040492848 0.84974301
0.41094005 0.040485658 0.84980834
0.4108806 0.040480196 0.84986901
0.41035831 0.040566795 0.85002112
0.41007024 0.04069604 0.8498745
0.40989456 0.040742494 0.84987664
0.40942946 0.040873423 0.84985971
0.40931717 0.040929481 0.84978646
0.40926087 0.04095839 0.84974748
0.40867797 0.041098192 0.84979516
0.40820777 0.041153461 0.84999639
0.40815425 0.04116673 0.84999949
0.40803477 0.041211016 0.8499651
0.40733579 0.041376002 0.85002977
0.40715927 0.041400932 0.85009342
0.40663999 0.041496895 0.85021681
0.40658182 0.041536219 0.85014975
0.40593964 0.04169555 0.85018724
0.40582541 0.04171031 0.85023236
0.4054122 0.041863374 0.85011339
0.40529579 0.041890286 0.85012579
0.40506163 0.041977793 0.85005617
0.40494692 0.041969307 0.85016745
0.40477657 0.042037971 0.85010266
0.40471461 0.042046398 0.85012591
0.40466234 0.042052731 0.85014772
0.40447924 0.042140849 0.85003763
0.40437016 0.042152829 0.85008669
0.40401992 0.042265519 0.85003412
